ply
format ascii 1.0
element vertex 1245
property float x
property float y
property float z
property uchar red
property uchar green
property uchar blue
end_header
-0.130895 16.3525 -51.5656  255 255 255
6.99742 -2.97919 26.1117  255 255 255
47.2669 -3.91778 -17.6152  255 255 255
59.5669 -11.8231 3.67251  255 255 255
7.8677 -4.83936 30.0372  255 255 255
48.775 -7.13596 -16.1354  255 255 255
48.8201 -7.13 -16.1922  255 255 255
25.6965 -9.36806 11.077  255 255 255
58.6004 -16.1787 1.08687  255 255 255
48.0656 -10.3158 -20.286  255 255 255
2.18782 -8.45963 34.2219  255 255 255
11.4884 -10.9251 30.9691  255 255 255
53.1607 -15.7107 -11.6145  255 255 255
53.2336 -15.7111 -11.725  255 255 255
59.0473 -19.0838 -1.55177  255 255 255
-14.76 -4.02339 26.0967  255 255 255
58.2162 -19.3334 -4.35484  255 255 255
4.82181 -12.0105 34.4415  255 255 255
11.1535 -13.4291 31.7476  255 255 255
52.4623 -16.8982 -14.5339  255 255 255
10.0549 -13.3804 32.9268  255 255 255
-0.099855 -12.5771 35.9279  255 255 255
-9.09306 -10.2094 33.7945  255 255 255
-21.4465 -4.21577 14.3799  255 255 255
-26.2009 -1.91649 7.75515  255 255 255
-22.3295 -3.80067 9.33169  255 255 255
-27.3267 4.02144 -35.2022  255 255 255
-18.9253 -7.7129 23.2771  255 255 255
2.25616 -16.9301 36.0285  255 255 255
-8.45838 -14.3887 34.8868  255 255 255
-21.0446 -8.79658 19.7192  255 255 255
11.9712 -19.9303 30.3022  255 255 255
-11.045 -13.818 33.6076  255 255 255
-19.0091 -11.468 25.3823  255 255 255
46.4578 -27.3311 -5.17075  255 255 255
-2.36377 -18.486 36.1873  255 255 255
-26.3004 -9.60383 16.2703  255 255 255
-17.6965 -14.63 28.0615  255 255 255
-2.97933 -19.8884 35.7925  255 255 255
44.7524 -30.2036 -3.75658  255 255 255
-12.1846 -16.9826 32.7447  255 255 255
18.2347 -26.1753 31.2415  255 255 255
-20.5358 -14.3384 26.4596  255 255 255
10.9681 -24.7016 33.7578  255 255 255
-20.1576 -14.9987 27.0231  255 255 255
-3.44423 -21.8543 35.2946  255 255 255
-14.4383 -19.1177 31.1232  255 255 255
-11.8557 -20.3196 32.3493  255 255 255
-17.619 -18.949 31.0788  255 255 255
15.1177 -29.6664 33.6526  255 255 255
-8.29152 -25.0677 36.0546  255 255 255
-1.33977 -27.2978 36.3235  255 255 255
2.39549 -29.8268 37.079  255 255 255
-28.6249 -20.397 21.5113  255 255 255
-26.1846 -21.6225 26.212  255 255 255
-23.94 -23.1216 31.4743  255 255 255
-9.5662 -28.4855 36.6889  255 255 255
-12.4066 -28.3712 36.6463  255 255 255
12.2431 -37.1668 28.9751  255 255 255
-18.213 -27.3323 34.1413  255 255 255
-23.3574 -26.5832 28.9133  255 255 255
11.8578 -39.4585 27.5995  255 255 255
12.1234 -39.5142 26.9918  255 255 255
-15.7684 -33.2467 31.9599  255 255 255
-5.46399 -36.8076 35.3761  255 255 255
-18.5564 -32.6781 29.361  255 255 255
-22.4603 -31.7222 25.9303  255 255 255
-25.7875 -31.131 20.375  255 255 255
1.2947 -40.3421 31.3539  255 255 255
1.2947 -40.3421 31.3539  255 255 255
-0.911988 -39.7598 31.0423  255 255 255
-1.35899 -40.1886 31.2652  255 255 255
-1.35899 -40.1886 31.2652  255 255 255
5.75736 -42.9735 29.5391  255 255 255
-20.1293 -34.9033 27.1945  255 255 255
-12.5488 -38.8494 29.1784  255 255 255
-47.162 -29.0355 3.76175  255 255 255
-47.161 -29.012 4.03568  255 255 255
-44.7272 -36.5165 12.1985  255 255 255
-7.8127 -49.2309 29.16  255 255 255
-6.30784 -50.3175 29.395  255 255 255
6.61124 -58.2055 32.8187  255 255 255
-38.0439 -45.5978 21.7691  255 255 255
-34.9225 -50.0774 26.8774  255 255 255
0.086969 -62.0219 37.5336  255 255 255
1.19111 -65.944 41.8864  255 255 255
-30.808 -55.735 32.649  255 255 255
-30.3822 -56.1472 33.1101  255 255 255
-25.8209 -63.9298 41.9564  255 255 255
-33.1324 -61.8724 39.6317  255 255 255
55.5532 57.5909 -3.39038  255 255 255
82.4402 100.992 -93.8823  255 255 255
23.0528 90.4057 -58.4199  255 255 255
23.0528 90.4057 -58.4199  255 255 255
63.0674 95.8473 -82.4017  255 255 255
48.566 60.148 -12.3773  255 255 255
42.6652 92.2751 -72.0839  255 255 255
-2.71213 83.1707 -44.6086  255 255 255
50.2162 56.5625 -11.6039  255 255 255
54.8163 38.9898 19.4607  255 255 255
-9.43029 78.6643 -42.8179  255 255 255
55.0881 87.6687 -86.0221  255 255 255
54.5542 87.1405 -84.753  255 255 255
-7.99339 73.5165 -49.4535  255 255 255
11.2906 75.1584 -61.5168  255 255 255
59.8103 80.7741 -93.8789  255 255 255
52.877 29.0611 17.7829  255 255 255
32.8 74.5284 -79.6662  255 255 255
45.365 71.8679 -88.0166  255 255 255
45.5446 71.9837 -88.3953  255 255 255
24.4232 70.1017 -76.5524  255 255 255
32.9578 70.5123 -82.4545  255 255 255
39.659 69.1069 -85.7105  255 255 255
54.3748 21.468 16.3614  255 255 255
-1.77205 64.1943 -61.2465  255 255 255
-1.74749 64.2397 -61.3686  255 255 255
4.20497 60.2804 -68.1516  255 255 255
53.5696 18.079 11.9856  255 255 255
53.5696 18.079 11.9856  255 255 255
-18.5803 57.8069 -54.4466  255 255 255
48.4457 21.6389 1.95382  255 255 255
53.1108 27.9799 -23.2712  255 255 255
47.7601 31.6284 -31.1978  255 255 255
59.4695 50.7444 -91.4296  255 255 255
60.0251 50.638 -94.1775  255 255 255
51.9814 15.8591 7.12653  255 255 255
-14.2737 53.3516 -61.7836  255 255 255
-18.4681 52.9785 -58.9155  255 255 255
54.8714 22.9798 -22.0087  255 255 255
46.5824 27.1359 -40.065  255 255 255
49.3044 22.916 -35.7732  255 255 255
48.5672 23.0683 -37.3161  255 255 255
49.559 11.6696 -2.64025  255 255 255
51.1888 18.1261 -34.3166  255 255 255
52.238 14.1298 -33.4116  255 255 255
52.7439 12.874 -34.4288  255 255 255
52.2969 4.17251 -4.78955  255 255 255
48.6494 15.4098 -42.2219  255 255 255
52.2741 12.1467 -34.9644  255 255 255
49.2293 14.224 -41.0361  255 255 255
48.9355 14.1181 -42.1259  255 255 255
-26.3282 38.3191 -66.0823  255 255 255
25.0487 24.7481 -62.4052  255 255 255
52.0302 1.81491 -2.9852  255 255 255
-16.9356 37.5325 -72.9267  255 255 255
12.2407 23.614 -61.4021  255 255 255
59.4303 -5.80033 7.30524  255 255 255
7.16407 22.5779 -58.6407  255 255 255
3.66198 19.3316 -54.3505  255 255 255
50.0429 -3.87705 -11.8056  255 255 255
59.7264 -11.3263 5.157  255 255 255
54.3136 -10.6554 -6.15631  255 255 255
57.868 -14.8628 -2.11451  255 255 255
-8.95252 -5.49582 31.2882  255 255 255
58.6231 -18.4851 -2.38621  255 255 255
-1.39773 -8.99105 34.6526  255 255 255
57.4318 -18.9724 -5.42472  255 255 255
-16.9557 -3.68839 22.8715  255 255 255
52.887 -17.4941 -13.6531  255 255 255
-23.5782 7.35104 -38.9483  255 255 255
58.5632 -21.8686 -3.7313  255 255 255
-0.559113 -12.9237 36.0174  255 255 255
59.5871 -23.811 -4.1103  255 255 255
-29.4744 5.1016 -36.154  255 255 255
-0.90296 -15.6689 36.2928  255 255 255
-24.9523 -0.409114 -30.4212  255 255 255
-13.1723 -14.5693 32.6129  255 255 255
-19.8087 -13.3194 24.8717  255 255 255
-10.0268 -17.3032 34.1241  255 255 255
1.91138 -21.1351 35.2238  255 255 255
-14.529 -16.2085 31.372  255 255 255
-3.02336 -20.543 35.3135  255 255 255
-6.48887 -19.6555 35.2928  255 255 255
-18.292 -17.1839 29.4053  255 255 255
-17.325 -17.6952 29.5739  255 255 255
-8.4293 -20.9043 34.295  255 255 255
-16.5328 -18.8333 30.9072  255 255 255
-2.76946 -24.872 36.8264  255 255 255
-7.682 -23.4884 35.2628  255 255 255
-13.6482 -21.6277 33.8743  255 255 255
-18.5618 -23.7368 31.5925  255 255 255
-19.0901 -23.9645 32.2063  255 255 255
-19.0901 -23.9645 32.2063  255 255 255
10.9068 -39.2065 28.4497  255 255 255
12.7444 -40.0827 26.3212  255 255 255
9.45724 -39.2076 29.1885  255 255 255
-10.466 -32.9313 34.8883  255 255 255
-5.46243 -37.6845 33.4051  255 255 255
-19.0456 -35.397 27.6519  255 255 255
2.99112 -43.2265 28.4806  255 255 255
6.24038 -46.1131 30.8049  255 255 255
-43.8931 -30.2523 4.86903  255 255 255
-5.9629 -42.8194 30.6461  255 255 255
-49.2827 -31.81 6.78919  255 255 255
-16.9321 -42.6823 26.5291  255 255 255
-45.1171 -34.6298 8.83112  255 255 255
-49.5136 -34.5561 9.96742  255 255 255
-42.782 -39.729 15.7529  255 255 255
-36.774 -44.8146 20.869  255 255 255
-43.9429 -43.2481 19.4051  255 255 255
-39.6652 -45.1308 21.1553  255 255 255
-42.8501 -46.4613 23.059  255 255 255
-27.3645 -52.1735 28.7281  255 255 255
-37.6311 -49.9883 26.8667  255 255 255
-30.1336 -52.9939 29.7588  255 255 255
7.18839 -67.8269 43.853  255 255 255
-34.0179 -56.7354 34.4594  255 255 255
-35.9726 -58.9719 36.6302  255 255 255
-25.5571 -62.5984 40.3798  255 255 255
-26.0595 -62.9959 40.1253  255 255 255
-34.3838 -60.6901 38.4155  255 255 255
-26.154 -63.5236 41.3409  255 255 255
-33.745 -61.4274 39.148  255 255 255
49.3899 60.1161 -10.7022  255 255 255
65.5849 93.8102 -90.8635  255 255 255
51.0647 39.8072 17.9911  255 255 255
-4.76049 81.2233 -44.9926  255 255 255
59.9569 88.4553 -87.5146  255 255 255
58.833 32.4137 25.1874  255 255 255
56.9668 29.3824 27.7928  255 255 255
52.6042 48.9913 -11.3342  255 255 255
70.18 86.6596 -97.1726  255 255 255
66.499 79.7677 -100.236  255 255 255
-18.971 69.625 -44.3668  255 255 255
73.4002 78.9798 -105.523  255 255 255
73.5212 79.0476 -105.78  255 255 255
41.1095 69.669 -86.9887  255 255 255
53.1145 21.0091 12.6707  255 255 255
-9.77272 61.8871 -58.6654  255 255 255
19.7887 61.6442 -77.3162  255 255 255
20.0759 61.9446 -78.4502  255 255 255
52.0848 18.581 8.96463  255 255 255
-9.09067 56.6225 -63.8244  255 255 255
55.2601 23.8355 -20.396  255 255 255
55.215 23.8405 -20.3384  255 255 255
-15.6799 48.9032 -65.2061  255 255 255
50.2272 22.3825 -33.6911  255 255 255
51.9835 7.01846 0.599656  255 255 255
51.1005 15.8896 -35.4555  255 255 255
58.2032 -2.85669 7.44461  255 255 255
51.631 10.1886 -38.4532  255 255 255
1.54526 27.0977 -63.2191  255 255 255
10.2691 18.31 -53.489  255 255 255
50.7616 -6.78198 -11.9155  255 255 255
51.7806 -8.49475 -10.8405  255 255 255
6.64409 -6.51291 31.4648  255 255 255
6.26448 -6.59878 30.7969  255 255 255
53.199 -12.6313 -10.3173  255 255 255
4.3078 -9.3282 34.147  255 255 255
56.899 -16.1108 -4.84567  255 255 255
-4.99955 -7.25314 33.5203  255 255 255
60.1091 -20.7073 -2.44481  255 255 255
2.81338 -12.397 35.328  255 255 255
-23.2368 5.27269 -36.502  255 255 255
6.96944 -16.5898 33.9866  255 255 255
-9.51157 -11.9515 33.8485  255 255 255
4.76114 -16.9976 35.2975  255 255 255
2.54491 -18.2793 35.489  255 255 255
-21.7353 -9.94442 21.0612  255 255 255
-21.6076 -13.5951 25.0841  255 255 255
-24.3661 -12.3539 19.7473  255 255 255
-24.3661 -12.3539 19.7473  255 255 255
2.15393 -21.9893 35.0593  255 255 255
2.15393 -21.9893 35.0593  255 255 255
-18.7223 -15.3808 27.2606  255 255 255
-17.0782 -16.5902 29.0975  255 255 255
-17.9659 -16.2568 28.3675  255 255 255
-13.0504 -18.5194 32.223  255 255 255
0.108661 -22.9669 34.7337  255 255 255
-18.2188 -19.5847 31.6814  255 255 255
-12.6872 -21.4044 33.4762  255 255 255
-1.80919 -26.1502 36.9968  255 255 255
13.3185 -31.4974 33.331  255 255 255
-16.6102 -23.4577 32.1194  255 255 255
7.18199 -31.9464 38.0223  255 255 255
-26.3579 -21.0088 26.2463  255 255 255
-14.8711 -25.1709 33.2506  255 255 255
-7.47474 -28.2634 34.9321  255 255 255
5.84774 -33.8501 36.2235  255 255 255
-23.1879 -25.0395 30.6587  255 255 255
5.38535 -38.0639 31.3901  255 255 255
11.9517 -41.1564 25.6599  255 255 255
-46.1992 -26.3714 0.217  255 255 255
-46.1974 -26.4339 0.139889  255 255 255
-12.0519 -39.5561 28.4078  255 255 255
-48.6583 -28.6258 3.48942  255 255 255
-14.0601 -42.2808 26.3645  255 255 255
-36.5151 -45.4697 21.3338  255 255 255
-41.1205 -44.7416 20.2926  255 255 255
12.391 -64.5256 39.7326  255 255 255
-9.48177 -60.3514 36.2819  255 255 255
9.45629 -67.9666 43.8986  255 255 255
-8.1511 -63.4123 39.9561  255 255 255
-5.45653 -67.5061 45.1985  255 255 255
-28.7321 -61.9009 39.2162  255 255 255
52.4798 50.6796 -8.97531  255 255 255
72.1643 86.325 -98.9744  255 255 255
-24.2152 55.7364 -51.3462  255 255 255
50.1983 26.3902 -30.6517  255 255 255
-12.634 48.7673 -67.5378  255 255 255
13.278 24.593 -61.7384  255 255 255
-2.60859 -13.4846 35.805  255 255 255
-19.4873 -6.7439 20.6271  255 255 255
-18.9448 -10.5924 25.7326  255 255 255
-14.0208 -13.101 31.5617  255 255 255
-12.4033 -15.8541 32.9813  255 255 255
-11.2041 -20.5506 33.3206  255 255 255
6.10105 -29.9571 37.3993  255 255 255
2.40949 -29.3255 38.8849  255 255 255
-14.3895 -25.523 33.4861  255 255 255
-19.0052 -24.4637 32.3425  255 255 255
5.64451 -34.6149 34.3816  255 255 255
-9.02866 -35.8868 33.3535  255 255 255
-26.2385 -32.3308 19.7315  255 255 255
-22.6249 -35.0745 23.2454  255 255 255
-41.5595 -40.7781 16.5239  255 255 255
-46.1435 -40.5125 16.4355  255 255 255
-25.634 -53.2871 29.5296  255 255 255
-36.6297 -50.9443 28.0086  255 255 255
-18.7771 53.0587 -59.7544  255 255 255
-20.7575 49.1221 -58.4971  255 255 255
48.5586 14.5916 -4.19721  255 255 255
52.6949 5.18191 -0.235785  255 255 255
51.8312 4.14903 -0.743617  255 255 255
-2.16862 2.75775 21.893  255 255 255
-21.6925 -0.133165 5.39081  255 255 255
-23.1847 -1.14067 6.35162  255 255 255
-22.3761 -1.84009 7.10278  255 255 255
-3.59889 -12.4009 35.8919  255 255 255
-9.61401 -17.5693 35.8685  255 255 255
1.65236 -25.8838 36.8332  255 255 255
-2.83816 -25.86 37.2483  255 255 255
-6.58665 -25.0717 36.5111  255 255 255
-14.0373 -24.9363 33.9377  255 255 255
2.86911 -30.933 38.1324  255 255 255
-13.0183 -26.4656 34.1031  255 255 255
15.7315 -39.0225 26.2808  255 255 255
13.5766 -38.8877 26.2197  255 255 255
13.5766 -38.8877 26.2197  255 255 255
1.23012 -39.1577 32.2178  255 255 255
4.78596 -41.6691 29.8011  255 255 255
5.03899 -41.7914 29.116  255 255 255
-25.9542 -33.2799 19.8844  255 255 255
4.761 -43.6341 28.7618  255 255 255
-23.6705 -34.5901 22.8507  255 255 255
-45.7767 -38.5677 14.4628  255 255 255
-46.8566 -39.2738 15.338  255 255 255
-32.779 -46.1738 23.4806  255 255 255
-38.2935 -44.8241 21.1669  255 255 255
10.068 -64.4004 39.1303  255 255 255
11.4017 -66.0998 41.4865  255 255 255
47.9588 57.5751 -14.3812  255 255 255
66.3282 90.0063 -91.5613  255 255 255
20.2768 78.6676 -67.3794  255 255 255
57.0178 38.8566 -12.7792  255 255 255
25.1851 65.6466 -78.178  255 255 255
54.4542 8.62847 7.48887  255 255 255
51.3392 6.80075 -1.38765  255 255 255
11.8363 26.2915 -62.8235  255 255 255
-19.2221 -0.549943 8.30151  255 255 255
-4.53431 -16.5189 36.1206  255 255 255
1.3791 -24.9159 36.3904  255 255 255
-44.8565 -29.1862 4.08617  255 255 255
-26.7686 -36.1874 22.6104  255 255 255
-31.339 -50.1555 25.9525  255 255 255
-40.8484 -47.6345 24.2309  255 255 255
24.4355 89.5798 -61.1549  255 255 255
8.82753 24.3224 -60.3829  255 255 255
-6.98645 -12.0613 35.164  255 255 255
5.42875 -32.2323 38.1428  255 255 255
3.21335 -40.9414 30.3532  255 255 255
-20.4406 -33.4471 26.6627  255 255 255
-44.041 -39.8583 15.3796  255 255 255
-44.041 -39.8583 15.3796  255 255 255
-44.3032 -41.2801 17.8045  255 255 255
61.687 90.1106 -86.7576  255 255 255
11.7524 82.8602 -57.3715  255 255 255
51.3823 48.9541 -12.9268  255 255 255
55.3504 41.4979 -16.0602  255 255 255
-21.6973 -2.21969 10.4449  255 255 255
-9.21185 -14.4446 34.0653  255 255 255
15.4661 -21.8522 34.0541  255 255 255
0.232748 -32.364 38.552  255 255 255
-14.7541 -28.2108 37.0383  255 255 255
-31.9898 -51.6896 27.7563  255 255 255
36.7565 65.3019 -90.9107  255 255 255
36.7565 65.3019 -90.9107  255 255 255
-7.58341 55.4631 -67.252  255 255 255
-11.8468 -12.6023 32.5835  255 255 255
5.66928 -26.1989 43.2282  255 255 255
-4.28459 -30.6558 38.5751  255 255 255
-10.6711 -25.8388 33.64  255 255 255
-10.6711 -25.8388 33.64  255 255 255
-8.31896 59.1821 -62.9848  255 255 255
-38.7004 55.3466 -41.655  255 255 255
-18.0109 57.2817 -57.5004  255 255 255
-59.6902 52.9708 -28.5171  255 255 255
-37.9099 54.4322 -43.1833  255 255 255
-28.9276 55.4764 -50.2927  255 255 255
-28.9276 55.4764 -50.2927  255 255 255
-25.9765 55.0365 -52.2896  255 255 255
49.1323 33.1007 -28.0532  255 255 255
-29.7567 52.1301 -52.3868  255 255 255
49.0388 21.5106 4.3874  255 255 255
54.6201 27.7617 -17.9801  255 255 255
-35.8103 49.9857 -48.9094  255 255 255
-50.2738 47.1163 -38.8602  255 255 255
55.6753 14.5673 15.1819  255 255 255
-46.6705 46.8429 -42.5866  255 255 255
-36.491 47.4759 -50.2473  255 255 255
-26.8269 47.3196 -55.4727  255 255 255
52.0911 16.5661 7.60213  255 255 255
-7.35133 49.1835 -71.6547  255 255 255
47.7347 29.3786 -33.6026  255 255 255
-50.043 46.2417 -41.1768  255 255 255
3.96007 48.5464 -81.6014  255 255 255
4.42542 48.1221 -82.3108  255 255 255
54.4093 22.829 -23.1079  255 255 255
-42.632 44.2466 -48.9847  255 255 255
-26.956 44.3498 -60.7107  255 255 255
-49.6469 41.9037 -44.05  255 255 255
-49.6469 41.9037 -44.05  255 255 255
-26.7148 43.1827 -62.1458  255 255 255
-63.375 41.517 -34.7359  255 255 255
-43.1398 41.9798 -48.9077  255 255 255
-27.7197 42.8963 -61.6746  255 255 255
-56.8368 41.1928 -38.9041  255 255 255
-46.7732 41.4814 -46.3431  255 255 255
-52.3114 41.256 -42.1361  255 255 255
-62.047 41.2365 -36.9354  255 255 255
-62.9376 40.9962 -35.9786  255 255 255
-55.1129 41.1304 -41.162  255 255 255
-52.8813 40.819 -42.4329  255 255 255
-77.1809 40.5791 -26.6045  255 255 255
-51.4068 40.1453 -44.2387  255 255 255
6.78755 39.8783 -78.2304  255 255 255
6.0426 39.3231 -76.6219  255 255 255
53.0727 19.4579 -28.7227  255 255 255
-58.4253 39.1897 -39.9742  255 255 255
-51.5795 38.6321 -43.4972  255 255 255
-45.3088 39.7011 -52.1152  255 255 255
-54.0474 39.1045 -44.038  255 255 255
50.4915 19.9238 -33.8881  255 255 255
50.4915 19.9238 -33.8881  255 255 255
-49.4148 38.5511 -47.5619  255 255 255
-50.2768 38.777 -48.0492  255 255 255
-64.8654 38.3682 -37.0461  255 255 255
12.8754 34.859 -72.6102  255 255 255
-55.409 38.4638 -44.0846  255 255 255
-61.8901 38.2013 -38.911  255 255 255
-27.1851 38.7155 -64.9532  255 255 255
-73.4029 38.0158 -31.9572  255 255 255
-4.34525 37.0587 -73.5733  255 255 255
-50.8846 37.3658 -47.1005  255 255 255
46.9276 25.7985 -63.8468  255 255 255
-10.7781 36.169 -71.471  255 255 255
49.7495 18.3683 -36.1036  255 255 255
53.3918 16.1259 -29.8203  255 255 255
-68.4051 36.765 -35.9001  255 255 255
-54.5072 36.8677 -46.1987  255 255 255
-27.4177 37.1676 -66.824  255 255 255
-71.6583 36.1981 -34.4033  255 255 255
-71.6583 36.1981 -34.4033  255 255 255
-42.7022 35.5911 -54.0134  255 255 255
-70.0709 35.3314 -34.1082  255 255 255
-4.04759 31.8329 -66.1482  255 255 255
-9.50844 33.3275 -68.9185  255 255 255
-44.4826 21.9325 -8.98302  255 255 255
-54.0535 35.4852 -48.0892  255 255 255
1.23077 31.0927 -68.791  255 255 255
-36.7046 34.8837 -60.0143  255 255 255
-7.14763 31.6723 -67.7777  255 255 255
-41.4179 34.9999 -58.0915  255 255 255
-0.157445 29.5244 -65.1516  255 255 255
49.5943 7.90826 -4.185  255 255 255
-2.81353 30.1749 -66.9178  255 255 255
-2.78697 30.2073 -66.971  255 255 255
-4.02915 29.3351 -64.6575  255 255 255
-4.82098 29.2771 -64.5865  255 255 255
51.7958 13.4374 -32.7911  255 255 255
52.7668 5.58589 1.22244  255 255 255
52.7668 5.58589 1.22244  255 255 255
-16.2294 31.3157 -66.5127  255 255 255
-16.8829 30.8892 -65.881  255 255 255
-70.2322 32.1785 -34.0073  255 255 255
-27.271 31.7931 -65.5774  255 255 255
-67.4506 32.4918 -39.2923  255 255 255
-67.4506 32.4918 -39.2923  255 255 255
-66.0138 32.6049 -41.06  255 255 255
-53.0768 32.3599 -50.3283  255 255 255
-20.0354 29.9382 -64.8674  255 255 255
-8.70245 27.7291 -63.2728  255 255 255
-20.0485 29.4018 -64.2909  255 255 255
-29.0937 30.9675 -64.785  255 255 255
-29.0888 30.9478 -64.7435  255 255 255
-13.4048 27.5654 -61.424  255 255 255
-64.4451 31.8501 -42.244  255 255 255
-47.8696 31.6871 -57.6627  255 255 255
-48.0518 31.4052 -56.4102  255 255 255
-28.9265 29.2615 -63.1285  255 255 255
-65.7724 30.959 -43.1399  255 255 255
22.1906 18.5343 -54.7272  255 255 255
-55.87 30.1816 -50.5585  255 255 255
62.3921 -2.61684 18.1516  255 255 255
62.2731 -2.35506 15.6176  255 255 255
-43.3049 29.5976 -61.7912  255 255 255
-54.2398 29.7372 -53.8543  255 255 255
-27.5025 26.4461 -60.1622  255 255 255
-23.227 25.6357 -60.2678  255 255 255
-75.3107 31.0203 -43.6425  255 255 255
-0.822306 20.4436 -55.8454  255 255 255
-47.4602 28.899 -58.745  255 255 255
-29.5206 26.1291 -60.2273  255 255 255
-66.2629 29.1079 -43.4286  255 255 255
-55.5754 28.9417 -53.178  255 255 255
-53.1212 28.7288 -54.3847  255 255 255
-64.1961 28.9459 -45.783  255 255 255
-48.2529 28.5998 -59.1868  255 255 255
-54.0394 28.2087 -52.5159  255 255 255
-54.0394 28.2087 -52.5159  255 255 255
-19.5074 23.0254 -57.0437  255 255 255
-73.561 29.4701 -42.6166  255 255 255
-62.5791 28.1385 -46.5791  255 255 255
-78.7277 28.7965 -35.6479  255 255 255
30.767 12.9346 -49.3028  255 255 255
51.9561 7.70444 -39.1139  255 255 255
59.2167 -2.41877 8.97114  255 255 255
-36.8698 25.5291 -58.2371  255 255 255
-36.8698 25.5291 -58.2371  255 255 255
59.3192 -2.97574 11.5082  255 255 255
-40.4533 26.2432 -59.2798  255 255 255
-16.6327 21.2359 -54.505  255 255 255
-53.6297 27.6678 -55.9705  255 255 255
-0.0454349 17.5663 -51.4792  255 255 255
-33.144 24.3566 -58.3592  255 255 255
-62.7065 27.3941 -47.6438  255 255 255
-62.8382 27.5456 -48.2155  255 255 255
-34.6524 24.4145 -57.9206  255 255 255
-17.5991 20.8002 -54.2344  255 255 255
-61.1427 27.6002 -50.6555  255 255 255
-83.1693 28.0451 -32.6672  255 255 255
-60.7154 27.4533 -51.2133  255 255 255
-60.2529 27.0175 -48.9188  255 255 255
58.5352 -2.79647 7.89088  255 255 255
-65.8229 27.2388 -45.6533  255 255 255
-58.8411 27.0869 -52.3445  255 255 255
-58.4748 26.7137 -50.4062  255 255 255
-75.2947 28.2722 -44.1613  255 255 255
-62.8125 27.0352 -49.6511  255 255 255
-56.1183 26.3341 -52.2223  255 255 255
-40.8701 24.5789 -57.3834  255 255 255
-31.5754 22.5679 -55.4334  255 255 255
60.9049 -4.90786 14.814  255 255 255
-59.1266 26.8436 -52.7517  255 255 255
-58.5618 26.7238 -53.2184  255 255 255
-61.0136 26.6517 -51.3872  255 255 255
57.8856 -3.485 7.28076  255 255 255
-62.0655 26.5262 -50.9903  255 255 255
-57.4533 26.364 -54.3741  255 255 255
-53.8783 25.792 -54.8923  255 255 255
-2.36845 15.9672 -50.0658  255 255 255
-77.5217 26.7048 -38.1791  255 255 255
-78.1579 26.6838 -37.8981  255 255 255
-56.7621 26.0004 -55.2402  255 255 255
-80.968 26.4221 -33.8992  255 255 255
-73.7918 26.9407 -43.929  255 255 255
-59.0524 25.9619 -53.8127  255 255 255
-62.079 25.9382 -50.9866  255 255 255
-62.079 25.9382 -50.9866  255 255 255
59.319 -4.92858 9.92499  255 255 255
-62.9518 25.3287 -48.6853  255 255 255
-39.9593 22.0157 -54.2119  255 255 255
-20.9619 18.0968 -50.9508  255 255 255
-25.8687 18.5583 -50.2634  255 255 255
44.709 5.32478 -41.3653  255 255 255
62.2532 -6.96627 15.3699  255 255 255
-57.3937 23.9748 -52.5521  255 255 255
-7.60332 1.81709 23.3025  255 255 255
-79.6814 25.1243 -38.2388  255 255 255
-75.4731 25.7153 -46.0583  255 255 255
-63.6173 24.3291 -51.2852  255 255 255
-57.5783 23.8843 -56.4068  255 255 255
61.3099 -6.83937 10.9416  255 255 255
-65.8147 23.7175 -48.6194  255 255 255
-9.17767 13.3121 -45.6524  255 255 255
-82.0653 24.3564 -35.8868  255 255 255
-79.7558 24.4183 -39.0614  255 255 255
-57.5681 22.9392 -54.0244  255 255 255
-25.8044 15.9028 -47.3048  255 255 255
-90.9103 26.3126 -41.3721  255 255 255
-81.6147 24.0901 -37.6317  255 255 255
-78.5698 23.6088 -39.0977  255 255 255
-64.0625 23.1076 -52.1831  255 255 255
-81.6087 23.658 -37.985  255 255 255
-65.2125 22.4532 -50.1023  255 255 255
-35.8358 16.3937 -47.2715  255 255 255
-35.8358 16.3937 -47.2715  255 255 255
-10.8341 0.649626 23.4405  255 255 255
-23.5402 13.8858 -45.3898  255 255 255
-66.4657 22.2086 -50.6159  255 255 255
-68.1564 22.2829 -49.635  255 255 255
56.0727 -6.37729 0.686388  255 255 255
-23.6898 13.4496 -44.9426  255 255 255
56.8672 -7.05689 1.81823  255 255 255
41.4638 0.807575 -36.3966  255 255 255
8.67045 -4.27854 29.2789  255 255 255
57.6337 -8.17859 3.03329  255 255 255
9.78632 -4.99173 29.4993  255 255 255
10.861 -5.40605 28.8389  255 255 255
59.6657 -9.75178 6.27856  255 255 255
53.522 -7.33435 -5.85599  255 255 255
-41.384 13.3147 -44.4699  255 255 255
41.1054 -2.13944 -33.1089  255 255 255
13.0494 -6.60325 27.435  255 255 255
41.7815 -3.29677 -31.6069  255 255 255
5.3063 -6.30642 32.4048  255 255 255
65.9081 -13.8288 18.5051  255 255 255
40.5115 -3.80477 -30.3494  255 255 255
62.5264 -12.7542 12.4456  255 255 255
48.9151 -7.20546 -16.3288  255 255 255
-11.6984 -3.23965 27.5366  255 255 255
-15.9282 -2.13195 22.3199  255 255 255
-58.8048 13.8889 -43.7651  255 255 255
-60.886 14.1705 -44.3309  255 255 255
-60.886 14.1705 -44.3309  255 255 255
-17.6231 -0.56753 9.68932  255 255 255
-17.8952 -0.851331 10.1003  255 255 255
-66.6971 14.4343 -42.6669  255 255 255
66.8469 -15.6347 19.3047  255 255 255
51.3649 -10.1938 -13.0195  255 255 255
-61.2821 12.2469 -42.084  255 255 255
-44.5171 8.18254 -38.5628  255 255 255
24.267 -9.57017 12.4957  255 255 255
-50.4622 9.10758 -38.5094  255 255 255
-75.8863 14.2292 -43.8192  255 255 255
51.3811 -11.328 -13.1759  255 255 255
60.8518 -14.7461 5.05149  255 255 255
-43.2626 7.11709 -38.4896  255 255 255
-42.3519 6.66174 -36.7294  255 255 255
-14.8089 -5.4626 26.97  255 255 255
-9.70677 -6.84089 31.526  255 255 255
-24.5483 -1.66711 6.9121  255 255 255
63.5032 -16.3687 8.31945  255 255 255
14.279 -10.6873 28.5522  255 255 255
-74.4607 11.9942 -41.5669  255 255 255
-20.5764 -3.54689 13.3662  255 255 255
-20.5764 -3.54689 13.3662  255 255 255
24.9545 -11.4079 14.1386  255 255 255
2.74199 -9.9424 34.4962  255 255 255
-38.1997 4.02814 -33.983  255 255 255
-18.1075 -5.29558 22.6832  255 255 255
4.84036 -10.4723 34.3602  255 255 255
4.84036 -10.4723 34.3602  255 255 255
60.9759 -16.6317 4.93163  255 255 255
-40.0776 4.15741 -33.2949  255 255 255
47.5722 -12.2596 -22.2966  255 255 255
61.629 -17.0455 3.90697  255 255 255
48.3698 -12.6582 -22.1153  255 255 255
48.4123 -12.6746 -22.2236  255 255 255
53.5502 -14.7472 -10.511  255 255 255
-18.1041 -6.30269 23.9039  255 255 255
-38.0792 2.4935 -32.5307  255 255 255
47.484 -13.2992 -20.8896  255 255 255
62.6678 -18.2992 5.02157  255 255 255
47.4716 -13.624 -21.3334  255 255 255
9.42434 -12.216 32.9398  255 255 255
26.041 -13.5267 16.3851  255 255 255
59.8261 -17.5807 -0.674905  255 255 255
-24.6969 -4.59655 10.2427  255 255 255
10.4296 -12.7203 32.1634  255 255 255
-32.9092 0.143958 -28.9025  255 255 255
-75.0394 8.42808 -37.0946  255 255 255
-51.45 3.50091 -32.5241  255 255 255
-61.7432 5.32203 -34.2628  255 255 255
63.9929 -20.0909 9.40128  255 255 255
-52.231 1.42437 -15.7744  255 255 255
24.281 -14.7775 17.9863  255 255 255
-40.028 0.226133 -29.2018  255 255 255
19.4119 -14.6515 22.8022  255 255 255
-64.9502 4.66224 -33.2753  255 255 255
-5.12309 -11.7463 35.2817  255 255 255
5.44708 -13.5916 34.9545  255 255 255
-2.09618 -12.6697 35.7604  255 255 255
-48.6525 0.230225 -29.2164  255 255 255
-23.5746 -7.90072 17.9545  255 255 255
-10.9474 -11.1984 32.8721  255 255 255
-17.2823 -9.97415 26.901  255 255 255
24.8855 -17.0017 20.7331  255 255 255
-45.1524 -1.60327 -27.5507  255 255 255
-46.4366 -1.5527 -27.1315  255 255 255
-0.799813 -13.9388 35.9592  255 255 255
18.3034 -16.5627 25.1711  255 255 255
-48.3881 -1.4114 -27.1001  255 255 255
11.3 -16.105 32.2806  255 255 255
65.327 -23.7631 4.38026  255 255 255
-49.7914 -1.96757 -26.6332  255 255 255
52.2346 -20.8189 -13.2062  255 255 255
-52.5844 -2.40766 -17.2167  255 255 255
-10.0007 -13.1623 33.9054  255 255 255
53.186 -21.5229 -12.5896  255 255 255
-27.6013 -9.39143 16.2187  255 255 255
-18.8188 -11.6335 25.9099  255 255 255
-51.1834 -3.2669 -24.6425  255 255 255
-27.5722 -10.0651 16.7792  255 255 255
4.91616 -17.032 35.1372  255 255 255
-34.9469 -7.46396 -22.0709  255 255 255
-41.3048 -6.40204 -20.2487  255 255 255
-38.4511 -6.95127 -21.4716  255 255 255
51.9429 -23.8343 -10.4812  255 255 255
23.6408 -20.7257 24.6187  255 255 255
70.0391 -28.468 17.2448  255 255 255
-49.6008 -6.08585 -21.5459  255 255 255
54.0708 -25.1405 -8.44423  255 255 255
65.109 -27.7571 6.75956  255 255 255
-58.2099 -4.95387 -23.0922  255 255 255
69.9175 -29.2517 16.5853  255 255 255
70.4473 -29.6377 17.1261  255 255 255
65.1282 -28.3791 1.62318  255 255 255
-41.8243 -8.76321 -18.8506  255 255 255
54.3761 -26.4339 -8.08271  255 255 255
4.69044 -19.136 34.9287  255 255 255
-42.4448 -9.24952 -18.9664  255 255 255
-8.96018 -16.7516 34.1199  255 255 255
0.926889 -18.6083 35.8938  255 255 255
15.2805 -21.1308 30.4385  255 255 255
-43.9938 -9.14916 -19.2131  255 255 255
-15.048 -16.0579 30.8947  255 255 255
-44.1079 -9.89341 -17.6844  255 255 255
-38.46 -11.0654 -16.9041  255 255 255
-49.8886 -9.12217 -18.1401  255 255 255
70.1042 -31.4937 15.0848  255 255 255
-48.8276 -9.42225 -17.8394  255 255 255
-51.0278 -9.06424 -18.3305  255 255 255
70.7905 -31.7289 16.1718  255 255 255
-51.2433 -9.38009 -17.9949  255 255 255
22.7342 -23.6304 28.2244  255 255 255
48.5964 -27.8404 -5.1826  255 255 255
-39.1454 -12.19 -15.6221  255 255 255
-21.4626 -16.2716 27.3669  255 255 255
12.933 -22.7199 32.1441  255 255 255
-49.7182 -11.0767 -16.3202  255 255 255
-22.2468 -16.4833 25.9482  255 255 255
69.4138 -33.1369 12.39  255 255 255
-19.3852 -17.1487 29.0455  255 255 255
15.2188 -23.5513 30.6021  255 255 255
-2.94197 -20.3879 35.0199  255 255 255
-56.9387 -10.7163 -16.37  255 255 255
-56.8631 -10.7105 -16.0158  255 255 255
-46.1097 -12.9954 -14.5241  255 255 255
-45.8506 -13.2318 -14.6632  255 255 255
-42.0559 -14.0251 -13.5045  255 255 255
16.6709 -25.1252 30.5205  255 255 255
-19.8073 -18.4572 29.8984  255 255 255
-26.33 -17.3404 24.824  255 255 255
-26.33 -17.3404 24.824  255 255 255
-20.4115 -18.4125 28.8774  255 255 255
19.6491 -25.9973 31.1046  255 255 255
15.8006 -25.3302 30.804  255 255 255
-39.483 -15.6441 -11.1686  255 255 255
57.9996 -34.0884 -0.560453  255 255 255
16.0589 -26.3885 32.0918  255 255 255
13.0572 -26.0098 32.0235  255 255 255
17.4774 -26.9275 32.495  255 255 255
17.4774 -26.9275 32.495  255 255 255
-44.3159 -16.5648 -9.85263  255 255 255
-26.3875 -19.139 27.2355  255 255 255
43.8726 -33.0679 1.20854  255 255 255
-22.4653 -20.242 28.2604  255 255 255
-22.4653 -20.242 28.2604  255 255 255
-16.7521 -21.224 32.173  255 255 255
3.51847 -25.0337 35.9115  255 255 255
-15.719 -21.5219 33.3168  255 255 255
-0.533328 -24.4811 35.7312  255 255 255
-51.2647 -16.427 -10.2559  255 255 255
-26.5723 -20.1907 26.4116  255 255 255
-51.565 -16.8988 -9.85292  255 255 255
-46.7565 -17.7819 -9.00411  255 255 255
-6.71942 -23.8346 35.6502  255 255 255
15.1187 -28.0351 33.771  255 255 255
-0.290333 -25.1222 36.4709  255 255 255
-5.28839 -24.2394 35.9079  255 255 255
15.4019 -28.4537 34.0844  255 255 255
-26.3801 -20.9445 26.3251  255 255 255
4.14124 -26.3475 36.1077  255 255 255
-26.6532 -20.9543 25.7867  255 255 255
16.4545 -28.9231 34.8175  255 255 255
60.6781 -38.5079 6.90422  255 255 255
10.069 -28.1461 34.5529  255 255 255
-18.4712 -22.8818 31.2753  255 255 255
-13.8893 -23.6762 34.0382  255 255 255
-18.0194 -23.2474 31.4721  255 255 255
9.3789 -28.3214 34.763  255 255 255
-55.7239 -18.5429 -7.76043  255 255 255
-50.3988 -19.7611 -7.06216  255 255 255
-18.2314 -23.8965 31.9574  255 255 255
-47.3482 -20.5215 -6.11946  255 255 255
61.8799 -40.876 9.41625  255 255 255
-60.2959 -18.4874 -7.82031  255 255 255
-45.7734 -21.2313 -5.4696  255 255 255
47.6577 -38.5353 6.6168  255 255 255
-59.5968 -18.8378 -7.46965  255 255 255
8.88781 -29.4511 36.1523  255 255 255
-24.1735 -23.4213 32.0926  255 255 255
-62.6335 -18.9346 -7.03664  255 255 255
-55.1434 -20.395 -5.4647  255 255 255
7.43316 -29.7979 36.33  255 255 255
-33.5547 -24.005 8.9986  255 255 255
-66.3182 -18.8198 -5.18342  255 255 255
-56.1399 -20.9562 -5.6266  255 255 255
53.8652 -41.8525 7.93492  255 255 255
-46.1384 -23.9341 -2.01359  255 255 255
5.85399 -31.0222 37.8816  255 255 255
-52.9279 -22.9491 -3.07758  255 255 255
-14.0124 -27.5542 36.0669  255 255 255
-50.4781 -23.6869 -2.37493  255 255 255
-56.7076 -22.79 -3.06906  255 255 255
-68.45 -20.9581 -4.51071  255 255 255
33.4121 -39.5692 10.8007  255 255 255
-53.6533 -24.215 -1.19866  255 255 255
-16.0046 -28.3902 35.66  255 255 255
-10.4101 -29.3417 37.4977  255 255 255
-52.5057 -24.8562 -1.01181  255 255 255
-13.7345 -28.9062 36.9799  255 255 255
-2.70535 -30.9114 38.7599  255 255 255
-2.70535 -30.9114 38.7599  255 255 255
0.0568134 -31.4532 38.6195  255 255 255
-14.9718 -28.666 37.1406  255 255 255
-26.2941 -28.0583 22.2534  255 255 255
-13.6052 -29.174 36.9057  255 255 255
2.93512 -32.5752 37.3776  255 255 255
-66.2585 -22.9732 -2.50928  255 255 255
-54.5555 -25.5484 -0.134525  255 255 255
-65.7475 -23.7 -2.013  255 255 255
-66.0376 -23.8245 -2.00533  255 255 255
-76.6934 -22.3738 -2.70812  255 255 255
-54.6161 -26.2407 0.850002  255 255 255
-56.3816 -26.0742 0.568072  255 255 255
-0.114379 -33.6697 36.6492  255 255 255
-48.6392 -28.1886 3.27458  255 255 255
41.827 -45.0963 14.9078  255 255 255
-42.7692 -29.7374 4.56766  255 255 255
16.7434 -39.2517 25.0119  255 255 255
41.3672 -45.753 15.829  255 255 255
44.2708 -46.4317 16.3076  255 255 255
12.4775 -39.2897 27.0933  255 255 255
-23.6703 -32.6035 24.0349  255 255 255
49.5847 -48.4806 18.7084  255 255 255
-1.44028 -36.5135 33.8084  255 255 255
-54.837 -30.4151 5.41451  255 255 255
-14.6439 -34.9393 31.413  255 255 255
-33.772 -33.9944 12.6533  255 255 255
-63.6381 -29.3617 4.39902  255 255 255
-63.6381 -29.3617 4.39902  255 255 255
-55.9948 -31.2199 6.14046  255 255 255
41.5299 -49.3467 19.9318  255 255 255
0.904012 -40.0832 31.4642  255 255 255
-63.7122 -31.1614 6.39623  255 255 255
-43.8949 -34.6072 9.81811  255 255 255
-52.2467 -33.2294 8.86601  255 255 255
-6.3197 -38.7283 32.1985  255 255 255
-0.735987 -40.7216 31.0954  255 255 255
-49.8795 -34.4056 9.67139  255 255 255
37.5115 -51.0029 22.1711  255 255 255
-71.6595 -31.244 7.56602  255 255 255
37.3539 -51.1966 22.3586  255 255 255
-53.2547 -34.9509 10.1636  255 255 255
29.4553 -50.1195 21.6035  255 255 255
-3.41535 -42.6724 30.1543  255 255 255
20.0717 -49.0826 24.9528  255 255 255
24.6449 -51.1371 22.9559  255 255 255
24.7373 -51.2427 22.7889  255 255 255
21.3613 -50.6288 24.8162  255 255 255
31.9618 -53.3789 25.399  255 255 255
-20.5689 -41.9061 29.168  255 255 255
-8.25599 -44.9464 31.2085  255 255 255
-6.31716 -45.6078 31.5066  255 255 255
19.8348 -52.6834 25.9997  255 255 255
-17.9406 -43.7638 29.86  255 255 255
30.2692 -55.4732 28.0121  255 255 255
-20.6364 -44.8355 25.6653  255 255 255
-17.992 -45.038 28.2997  255 255 255
-47.8396 -41.4137 17.5661  255 255 255
-31.7272 -44.0287 21.428  255 255 255
-52.5385 -41.0036 17.1639  255 255 255
-52.5385 -41.0036 17.1639  255 255 255
-47.5296 -41.9482 17.99  255 255 255
-42.5448 -43.1866 19.1529  255 255 255
-60.2979 -40.4 17.2511  255 255 255
-40.6464 -43.97 20.0176  255 255 255
-68.5466 -39.5505 17.0232  255 255 255
-33.5986 -46.0474 22.1422  255 255 255
27.9504 -57.937 30.6175  255 255 255
-58.7607 -42.1679 18.9452  255 255 255
-15.4528 -48.9268 27.7429  255 255 255
15.9571 -55.6383 29.2686  255 255 255
-5.75029 -50.8915 29.1701  255 255 255
-15.5672 -49.2107 27.8899  255 255 255
14.7406 -55.685 29.7889  255 255 255
-10.0535 -50.2697 30.0217  255 255 255
-54.2869 -44.8113 21.9561  255 255 255
-26.9606 -49.5526 25.7102  255 255 255
-48.9024 -45.937 22.6183  255 255 255
-54.8714 -45.1185 21.8926  255 255 255
-47.7884 -46.3793 22.9179  255 255 255
-29.5615 -49.3618 25.7232  255 255 255
-32.5965 -48.8959 25.3672  255 255 255
-37.8837 -48.2578 24.5886  255 255 255
-32.2227 -49.2907 25.6807  255 255 255
-15.4119 -52.7579 30.4922  255 255 255
12.5942 -58.4461 33.5333  255 255 255
-39.8192 -49.3894 25.6312  255 255 255
-29.8691 -50.9033 27.4987  255 255 255
-46.307 -48.4556 25.1981  255 255 255
-37.2359 -49.9897 26.1664  255 255 255
31.7899 -63.1862 35.9699  255 255 255
-1.58703 -56.4977 32.5474  255 255 255
38.6823 -65.2988 36.7746  255 255 255
31.0672 -63.43 36.4667  255 255 255
-64.946 -46.4729 24.7879  255 255 255
-29.2555 -52.6562 29.3458  255 255 255
-18.8285 -54.5551 30.581  255 255 255
-62.7485 -47.0928 25.354  255 255 255
-49.3241 -49.4323 26.7554  255 255 255
-49.3241 -49.4323 26.7554  255 255 255
-1.6095 -57.8095 33.1688  255 255 255
20.6349 -62.2569 36.392  255 255 255
-13.1587 -55.7103 31.5088  255 255 255
30.9264 -64.6253 37.8283  255 255 255
-16.1568 -55.3275 31.1825  255 255 255
-2.50543 -57.6894 33.6924  255 255 255
-53.7426 -48.934 26.3645  255 255 255
-37.6846 -51.5377 28.6433  255 255 255
-49.2344 -49.8189 27.348  255 255 255
16.7625 -62.027 35.9018  255 255 255
-12.3352 -56.3454 32.0752  255 255 255
-11.7883 -56.6239 32.4654  255 255 255
-15.2528 -55.8421 32.529  255 255 255
28.2487 -64.6379 38.3572  255 255 255
28.2487 -64.6379 38.3572  255 255 255
-54.3496 -49.4506 26.9878  255 255 255
-10.0347 -57.0431 32.991  255 255 255
-50.137 -50.2426 27.305  255 255 255
-30.4861 -53.5377 30.281  255 255 255
-0.356842 -59.0798 34.8688  255 255 255
-18.5314 -55.7616 32.2096  255 255 255
14.6886 -62.0534 37.4402  255 255 255
0.485976 -59.5334 34.7411  255 255 255
-2.07234 -58.852 35.0511  255 255 255
-36.8156 -53.157 30.65  255 255 255
7.20057 -61.167 36.946  255 255 255
14.9509 -62.8324 38.4591  255 255 255
-37.3504 -53.5871 30.598  255 255 255
13.1444 -62.8423 38.327  255 255 255
-50.4546 -51.5734 29.3304  255 255 255
-42.6206 -53.1606 30.2034  255 255 255
6.69478 -61.9112 37.8554  255 255 255
-31.6331 -55.0565 32.6231  255 255 255
11.1243 -63.3817 38.0179  255 255 255
8.44903 -63.0447 38.2219  255 255 255
23.049 -66.0917 41.0218  255 255 255
-1.48112 -61.1659 37.5462  255 255 255
-6.9652 -60.1372 36.8169  255 255 255
7.48542 -63.0896 39.2245  255 255 255
-39.1615 -55.1097 32.8809  255 255 255
-0.251449 -62.0331 38.5869  255 255 255
-0.199791 -62.2337 38.1484  255 255 255
-61.7288 -51.3241 30.7012  255 255 255
6.50914 -63.3782 39.7315  255 255 255
24.4088 -67.3081 41.932  255 255 255
10.3873 -64.223 40.3534  255 255 255
-30.1721 -56.7316 34.4441  255 255 255
26.447 -67.9589 42.2643  255 255 255
-35.2844 -56.0996 33.6436  255 255 255
5.49335 -64.0509 39.2891  255 255 255
-28.8049 -57.3976 35.381  255 255 255
3.194 -63.5358 39.8669  255 255 255
-15.3991 -59.9607 37.5244  255 255 255
-33.1696 -57.1353 35.1664  255 255 255
-14.348 -60.7519 38.392  255 255 255
3.64207 -64.6099 41.1999  255 255 255
-7.2754 -62.5935 39.7592  255 255 255
4.04581 -65.5195 42.337  255 255 255
-28.6372 -59.7449 38.4031  255 255 255
-8.27772 -63.608 41.344  255 255 255
-8.13795 -64.0889 41.9245  255 255 255
-29.1783 -61.5269 39.8356  255 255 255
-32.6575 -61.686 40.0926  255 255 255
-3.18093 60.2324 -64.0027  255 255 255
-9.5003 58.5549 -61.6661  255 255 255
52.7655 22.7206 13.3078  255 255 255
19.2771 61.285 -81.6248  255 255 255
51.7798 23.2268 11.7002  255 255 255
25.5073 60.4599 -87.0945  255 255 255
50.9942 62.268 -104.709  255 255 255
24.4965 57.8715 -88.9378  255 255 255
16.6 56.3212 -84.8314  255 255 255
-12.8508 52.8864 -64.1585  255 255 255
-33.4694 50.9449 -49.851  255 255 255
-41.3066 50.3416 -44.4153  255 255 255
-41.4531 50.6345 -45.2257  255 255 255
-52.6892 49.2423 -36.7342  255 255 255
-7.85803 52.1998 -68.3869  255 255 255
23.7156 54.1262 -91.5313  255 255 255
-53.8007 47.0387 -38.0447  255 255 255
11.8234 50.7443 -85.3784  255 255 255
5.36864 48.7037 -82.171  255 255 255
51.1562 25.0293 -29.8522  255 255 255
53.7463 22.4426 -24.9652  255 255 255
22.4025 43.1756 -82.4784  255 255 255
-48.2895 42.777 -44.7928  255 255 255
53.2057 21.9318 -25.8383  255 255 255
-58.4315 41.2944 -38.2269  255 255 255
-61.1742 41.4952 -37.368  255 255 255
-12.1985 43.5433 -73.6864  255 255 255
-60.6019 41.0339 -36.6657  255 255 255
52.9202 11.5891 6.12712  255 255 255
-12.7562 41.8992 -71.4161  255 255 255
54.0297 19.1155 -26.8418  255 255 255
-41.1097 39.4999 -52.9581  255 255 255
-59.8594 38.3892 -41.9531  255 255 255
-12.3541 36.9133 -73.1315  255 255 255
-6.20554 34.6866 -71.3578  255 255 255
-55.4383 36.4654 -46.2561  255 255 255
-12.7357 33.8063 -67.8378  255 255 255
-12.7357 33.8063 -67.8378  255 255 255
-32.644 35.7497 -63.5043  255 255 255
-28.2691 35.9579 -67.8101  255 255 255
-1.33619 30.5256 -66.3526  255 255 255
-59.0969 35.2203 -45.0225  255 255 255
-7.98121 31.5254 -66.9177  255 255 255
41.9386 21.291 -58.6581  255 255 255
24.6752 23.7829 -61.0399  255 255 255
58.5188 2.28255 12.2685  255 255 255
30.5617 22.4979 -60.0657  255 255 255
28.9981 21.0889 -56.9107  255 255 255
-66.7267 32.7728 -39.8868  255 255 255
-66.7267 32.7728 -39.8868  255 255 255
-27.3767 30.3948 -64.8075  255 255 255
-47.346 31.9684 -56.5372  255 255 255
-21.7188 28.8716 -62.846  255 255 255
-64.0901 31.6825 -42.7123  255 255 255
-19.8983 28.0194 -61.5211  255 255 255
39.447 16.8492 -53.7405  255 255 255
39.447 16.8492 -53.7405  255 255 255
57.5272 0.950589 9.32635  255 255 255
-63.8379 31.3486 -43.4852  255 255 255
-63.1293 31.3429 -44.5312  255 255 255
62.0491 -1.64349 17.7649  255 255 255
-30.6675 28.6792 -62.7878  255 255 255
-51.9817 30.0926 -54.6144  255 255 255
59.3192 -1.10539 11.458  255 255 255
-36.1202 28.8747 -63.8507  255 255 255
-54.9647 29.7353 -53.2545  255 255 255
-28.0182 26.2733 -59.9923  255 255 255
60.7188 -2.3128 13.7846  255 255 255
-59.3653 29.3384 -49.9172  255 255 255
-45.6898 29.2487 -61.8823  255 255 255
49.3314 3.18966 -8.07653  255 255 255
-65.4058 28.0992 -45.4218  255 255 255
-55.8643 28.0216 -53.7028  255 255 255
-55.8007 27.8883 -53.073  255 255 255
-61.0357 27.541 -47.9767  255 255 255
47.2534 9.52076 -46.4812  255 255 255
59.5833 -3.11892 10.5015  255 255 255
59.1564 -3.20494 11.1688  255 255 255
-51.9263 26.8581 -56.5546  255 255 255
-57.3109 26.4358 -52.5188  255 255 255
-63.2972 26.524 -47.8816  255 255 255
-2.46722 16.4595 -50.4457  255 255 255
-39.1797 23.5194 -55.5504  255 255 255
-50.8038 25.7067 -57.8409  255 255 255
-54.4112 25.5109 -54.8866  255 255 255
-72.4859 26.9876 -46.184  255 255 255
-18.4538 17.947 -50.8382  255 255 255
-38.2607 21.5461 -52.8665  255 255 255
-55.1867 25.1603 -57.1272  255 255 255
48.7731 4.94867 -41.3592  255 255 255
-64.1655 24.9685 -49.0947  255 255 255
-38.0522 20.9502 -52.411  255 255 255
47.7081 4.97127 -40.8823  255 255 255
-58.906 24.8458 -54.5594  255 255 255
-58.4135 23.8838 -53.5017  255 255 255
-57.887 24.1409 -55.6153  255 255 255
-39.9967 20.5593 -53.1174  255 255 255
-64.2367 24.2005 -50.4662  255 255 255
-7.55793 1.50085 23.7507  255 255 255
-43.7254 20.321 -51.4355  255 255 255
-65.5099 23.7329 -49.5318  255 255 255
-62.6211 23.1486 -53.391  255 255 255
-41.5448 18.1523 -49.6044  255 255 255
43.5845 1.81043 -37.6031  255 255 255
-25.9441 14.467 -46.4962  255 255 255
-81.5034 22.5085 -35.0091  255 255 255
-81.5034 22.5085 -35.0091  255 255 255
-78.0904 22.3978 -41.3767  255 255 255
-44.3777 17.1332 -48.0788  255 255 255
-65.1245 20.9087 -49.4265  255 255 255
-35.9123 15.4088 -47.4804  255 255 255
43.2258 0.321436 -36.1401  255 255 255
-10.1095 -0.738207 26.1353  255 255 255
62.8619 -10.0342 13.6059  255 255 255
-76.1857 22.1487 -47.2073  255 255 255
50.9351 -5.23489 -9.85651  255 255 255
47.327 -3.88848 -17.6002  255 255 255
62.2168 -10.8542 12.029  255 255 255
-49.2564 15.6947 -46.7071  255 255 255
-62.7555 17.4975 -47.4343  255 255 255
42.875 -2.83761 -31.7652  255 255 255
-78.443 19.2399 -44.7617  255 255 255
8.35999 -6.45931 30.8105  255 255 255
12.0255 -7.04828 28.6626  255 255 255
-9.09794 -4.32839 30.6638  255 255 255
-60.2607 14.3294 -45.2596  255 255 255
-66.8473 14.8092 -42.3533  255 255 255
-66.8473 14.8092 -42.3533  255 255 255
12.6155 -8.12881 29.0149  255 255 255
12.8794 -8.06687 28.085  255 255 255
-67.8778 14.7579 -45.5937  255 255 255
-42.3077 8.5928 -38.8057  255 255 255
66.9062 -16.4153 18.8057  255 255 255
-4.91967 -6.70152 33.0473  255 255 255
1.5657 -7.99811 34.0394  255 255 255
60.1342 -13.7749 2.96209  255 255 255
1.12038 -8.2056 34.7506  255 255 255
-39.0116 6.9978 -37.5476  255 255 255
13.481 -10.0383 28.9807  255 255 255
48.8217 -10.656 -19.5051  255 255 255
43.8654 -9.37147 -25.3245  255 255 255
1.72665 -9.41597 34.7665  255 255 255
44.4719 -10.7208 -23.9058  255 255 255
-3.51156 -9.09471 34.7432  255 255 255
61.1064 -17.0032 5.62157  255 255 255
64.6168 -17.9363 9.00477  255 255 255
-33.3374 2.56336 -32.9071  255 255 255
54.8971 -14.756 -9.66645  255 255 255
-85.9137 12.7132 -42.4942  255 255 255
55.1089 -15.1077 -10.5806  255 255 255
53.979 -15.3298 -11.0187  255 255 255
53.979 -15.3298 -11.0187  255 255 255
-49.0669 4.47491 -33.8908  255 255 255
-15.3465 -7.64842 28.0679  255 255 255
45.8974 -13.7218 -20.7189  255 255 255
62.1377 -18.8861 5.38449  255 255 255
52.4887 -15.8173 -16.0994  255 255 255
59.056 -18.995 -1.55419  255 255 255
67.3776 -22.2198 15.8888  255 255 255
-40.6763 -0.68586 -28.9621  255 255 255
-40.645 -0.668015 -28.684  255 255 255
10.3962 -14.6652 32.4127  255 255 255
55.2283 -20.388 -11.2391  255 255 255
-41.9174 -3.46011 -25.4611  255 255 255
59.2668 -23.0994 -4.0585  255 255 255
-4.0658 -14.5142 35.8245  255 255 255
56.0525 -22.9809 -12.0889  255 255 255
23.8897 -19.1704 23.0155  255 255 255
-8.41817 -14.2455 34.9092  255 255 255
-58.2661 -2.33104 -25.6793  255 255 255
-34.8001 -7.02981 -21.9314  255 255 255
-19.8679 -11.9653 23.9528  255 255 255
-19.1437 -12.2814 25.1228  255 255 255
-48.1739 -5.32341 -22.7999  255 255 255
-43.5351 -6.46521 -22.5533  255 255 255
-49.5411 -5.34618 -22.913  255 255 255
-70.6262 -1.49012 -26.1886  255 255 255
53.09 -25.2609 -9.59027  255 255 255
50.2258 -25.4446 -7.84334  255 255 255
50.2258 -25.4446 -7.84334  255 255 255
-19.3133 -14.1813 25.7876  255 255 255
-4.66103 -17.1854 35.8324  255 255 255
0.702378 -18.6304 35.7184  255 255 255
-19.3777 -14.9054 26.7929  255 255 255
-78.2988 -2.8686 -24.4709  255 255 255
-78.2988 -2.8686 -24.4709  255 255 255
-16.9963 -16.5823 28.7928  255 255 255
54.4756 -29.3641 -4.2013  255 255 255
-56.268 -10.017 -17.1096  255 255 255
-56.3031 -10.0056 -17.2726  255 255 255
-51.5517 -11.2739 -15.6895  255 255 255
-42.1633 -13.166 -14.7978  255 255 255
-10.3265 -19.2992 33.5978  255 255 255
64.9538 -33.0378 2.53155  255 255 255
69.978 -34.0843 13.3233  255 255 255
-46.5475 -12.9605 -14.8212  255 255 255
-55.2169 -11.3336 -15.9681  255 255 255
-49.9009 -12.3265 -14.5049  255 255 255
-22.3718 -17.5307 25.9022  255 255 255
16.774 -24.7875 30.2309  255 255 255
-48.3615 -12.9788 -13.9727  255 255 255
-15.0776 -19.3112 31.241  255 255 255
-24.5077 -17.96 25.5791  255 255 255
-17.5787 -19.7723 31.8701  255 255 255
-20.4455 -19.3448 28.9197  255 255 255
-39.8625 -16.4674 -10.8829  255 255 255
-39.6816 -16.8272 -10.5256  255 255 255
-20.2427 -19.9308 29.1444  255 255 255
-8.47943 -22.1554 33.8982  255 255 255
51.3344 -34.2289 1.60467  255 255 255
54.3294 -34.8953 2.05419  255 255 255
-41.6879 -17.6685 -9.64908  255 255 255
-66.3098 -13.423 -13.4641  255 255 255
-43.9165 -17.5129 -9.63156  255 255 255
-40.5708 -18.498 -8.60563  255 255 255
-65.4274 -14.1327 -12.6468  255 255 255
-8.45423 -23.3193 35.2256  255 255 255
-22.1399 -21.0252 28.9214  255 255 255
-65.1146 -14.5197 -12.8065  255 255 255
-22.4554 -21.1997 29.5396  255 255 255
-45.0381 -18.5532 -8.20391  255 255 255
-23.3064 -21.337 29.4319  255 255 255
-6.65679 -24.275 36.2947  255 255 255
-44.873 -19.5336 -7.17233  255 255 255
-44.0824 -20.3419 -6.25674  255 255 255
-57.6208 -18.2539 -7.95145  255 255 255
-57.6208 -18.2539 -7.95145  255 255 255
-57.2189 -18.4727 -7.61864  255 255 255
-22.7403 -23.0189 31.4778  255 255 255
4.33889 -27.9838 35.4576  255 255 255
-48.0311 -20.6082 -6.42138  255 255 255
-53.3401 -19.6238 -6.57918  255 255 255
-17.7343 -24.4951 32.3249  255 255 255
-46.3667 -21.347 -4.97996  255 255 255
-62.841 -18.6299 -7.37026  255 255 255
-60.7351 -19.1714 -6.97051  255 255 255
-46.364 -21.8075 -5.16237  255 255 255
22.8041 -34.7648 18.9071  255 255 255
-68.0528 -20.4138 -5.5174  255 255 255
47.7116 -41.743 10.5699  255 255 255
58.6363 -43.7764 13.431  255 255 255
-61.8956 -21.7495 -4.3263  255 255 255
-9.9786 -28.8836 37.0118  255 255 255
-55.7304 -23.5735 -1.92075  255 255 255
37.7294 -40.8363 10.4712  255 255 255
-54.2337 -24.0521 -1.34003  255 255 255
-55.3971 -24.1667 -1.38944  255 255 255
-54.2146 -24.5164 -1.42583  255 255 255
-19.4721 -28.2311 32.0311  255 255 255
-15.5197 -29.1584 37.574  255 255 255
-44.6389 -27.5527 2.01816  255 255 255
43.7872 -44.7431 14.9917  255 255 255
43.7872 -44.7431 14.9917  255 255 255
35.1339 -43.4901 13.8892  255 255 255
-42.7218 -30.1897 4.83622  255 255 255
-63.2227 -26.7347 1.4977  255 255 255
-24.0881 -31.3579 25.8595  255 255 255
16.9175 -39.8097 24.9025  255 255 255
